# .PCD v0.7 - Point Cloud Data file format
VERSION 0.7
FIELDS x y z rgba
SIZE 4 4 4 4
TYPE F F F U
COUNT 1 1 1 1
WIDTH 1072
HEIGHT 1
VIEWPOINT 0 0 0 1 0 0 0
POINTS 1072
DATA ascii
-0.5118795 -0.1069826 1.4762591 4290675371
-0.49010476 -0.10886377 1.472446 4288910464
-0.49816811 -0.098738082 1.470632 4290675371
-0.4342027 -0.098049261 1.4741098 4288910464
-0.4248203 -0.09184587 1.4766455 4288910464
-0.41149089 -0.09229853 1.4766884 4288910464
-0.25484839 -0.50675225 1.4856857 4287317267
-0.29113498 -0.49802119 1.4831052 4287317267
-0.29732445 -0.48786458 1.4819822 4287317267
-0.37176719 -0.4609898 1.4834642 4287317267
-0.36255169 -0.46244732 1.4848624 4287317267
-0.35647967 -0.46365467 1.4874865 4287848247
-0.36117876 -0.4531222 1.4855343 4287317267
0.23273821 -0.17053482 1.4840975 4288910464
0.24129374 -0.17127654 1.4850661 4288910464
-0.65084571 -0.15035328 1.4860344 4292505814
-0.58211952 -0.15281719 1.4882725 4288910464
-0.56889886 -0.15358387 1.4832381 4288910464
-0.55064714 -0.15551998 1.4852999 4288910464
-0.54829097 -0.1503045 1.4823867 4290675371
-0.53910249 -0.15127397 1.4835217 4290675371
-0.52991396 -0.15224345 1.4846568 4290675371
-0.73454154 -0.14292243 1.4899642 4292505814
-0.7200768 -0.14368866 1.4840052 4292505814
-0.70145243 -0.14565371 1.4863058 4292505814
-0.68538797 -0.1470287 1.4850289 4292505814
-0.66939676 -0.14839596 1.4837428 4292505814
-0.56666809 -0.14836553 1.4801166 4292505814
-0.55747956 -0.149335 1.4812517 4292505814
0.16541784 -0.14148109 1.4898652 4288910464
-0.7283144 -0.13334423 1.4821521 4292505814
0.15782881 -0.13631663 1.4871589 4288910464
0.16564471 -0.13573414 1.4845892 4288910464
0.17442273 -0.13463387 1.4850628 4288910464
-0.72723985 -0.12398233 1.4814492 4292505814
0.15708892 -0.12781323 1.4860333 4288910464
0.16598748 -0.12896709 1.4871399 4288910464
-0.41549554 -0.11079066 1.4895078 4288910464
-0.52461237 -0.10605546 1.4811893 4290675371
-0.5062353 -0.10799442 1.4834594 4290675371
-0.43548 -0.10440369 1.4881735 4288910464
-0.42565531 -0.1044765 1.4850681 4288910464
-0.41531819 -0.10492261 1.4885778 4288910464
-0.40327382 -0.10504653 1.485522 4288910464
-0.2839838 -0.50208259 1.4991248 4287317267
-0.2909852 -0.49015403 1.4907455 4287317267
-0.36310989 -0.47390831 1.4954616 4287317267
0.23635416 -0.18054132 1.497483 4288910464
0.24497743 -0.18128893 1.4984593 4288910464
0.22857568 -0.17115121 1.495663 4288910464
0.25195262 -0.17264786 1.4917814 4288910464
0.2605392 -0.17339228 1.4927535 4288910464
-0.55809033 -0.1601399 1.4974922 4290675371
-0.72117978 -0.15452902 1.4989803 4292505814
-0.67013144 -0.15923788 1.4987601 4292505814
-0.6455794 -0.15154889 1.4932077 4292505814
-0.63626724 -0.15253142 1.4943579 4292505814
-0.62695503 -0.15351395 1.4955083 4292505814
-0.61764288 -0.15449648 1.4966586 4292505814
-0.60833067 -0.155479 1.4978089 4292505814
-0.59519249 -0.15622525 1.4929091 4292505814
-0.56379443 -0.15476106 1.4903426 4288910464
-0.7482729 -0.1421136 1.4947908 4292505814
-0.71583021 -0.14489667 1.4922756 4292505814
0.15902182 -0.1451779 1.4964943 4288910464
0.16805309 -0.14675246 1.4976066 4288910464
0.17627582 -0.14518547 1.4982421 4288910464
0.18444484 -0.14337686 1.4989543 4288910464
0.16509011 -0.13483347 1.491963 4288910464
0.17767897 -0.13897309 1.4907451 4288910464
0.1845118 -0.13513499 1.4931767 4288910464
-0.44143811 -0.11729299 1.4993188 4288910464
-0.43072778 -0.11710853 1.4932804 4288910464
-0.42173052 -0.11728092 1.4935821 4288910464
-0.41273326 -0.1174533 1.4938837 4288910464
-0.2838138 -0.52139795 1.5042675 4287317267
-0.28701669 -0.51838684 1.5054557 4287317267
-0.25814068 -0.51632065 1.5082316 4287317267
-0.27449465 -0.50715619 1.5067573 4287317267
-0.26601362 -0.50707853 1.505788 4287317267
-0.27462944 -0.49200505 1.5040277 4287317267
-0.37187567 -0.47542679 1.5055459 4287317267
0.22342621 -0.18046622 1.5080633 4288910464
0.23010992 -0.18056715 1.5033084 4288910464
0.22229828 -0.17113698 1.5014807 4288910464
-0.71790332 -0.16528003 1.5079812 4292505814
-0.66482586 -0.16047493 1.5059415 4292505814
-0.63664895 -0.16344789 1.5094221 4292505814
-0.59215194 -0.16252872 1.5023503 4288910464
-0.58290917 -0.16350918 1.5033945 4288910464
-0.57366639 -0.16448963 1.5044385 4288910464
-0.5538193 -0.16391234 1.5056187 4289760149
-0.54314548 -0.1623567 1.505861 4290675371
-0.53026366 -0.16307589 1.5009296 4290675371
-0.75455773 -0.1518115 1.5026067 4292505814
-0.74512196 -0.15280707 1.5037724 4292505814
-0.73568606 -0.15380265 1.5049379 4292505814
-0.71178746 -0.15552001 1.5001404 4292505814
-0.70239514 -0.15651099 1.5013007 4292505814
-0.69300282 -0.15750198 1.5024608 4292505814
-0.6836105 -0.15849297 1.5036211 4292505814
-0.58505034 -0.15793532 1.5006846 4292505814
-0.57108206 -0.15940911 1.5024101 4292505814
0.15895154 -0.15482229 1.5097803 4288910464
0.17535393 -0.15035361 1.5035305 4288910464
0.18436797 -0.151692 1.5047243 4288910464
0.165189 -0.14621213 1.5012991 4288910464
-0.75238001 -0.1328391 1.5011824 4292505814
-0.4386639 -0.11119559 1.5086232 4288910464
-0.42959097 -0.1115037 1.5086526 4288910464
-0.27051356 -0.52398902 1.5173117 4287317267
-0.26329213 -0.52384043 1.5159993 4287317267
-0.2860226 -0.51451635 1.5189128 4287317267
-0.27593446 -0.5197404 1.5155617 4287317267
-0.26645666 -0.51302135 1.5144143 4287317267
-0.25870472 -0.51847875 1.5128875 4287317267
-0.27753583 -0.50316375 1.5180684 4287317267
-0.267903 -0.50459403 1.5193441 4287317267
-0.26584038 -0.49415952 1.5128262 4287317267
-0.25625077 -0.49558336 1.5140961 4287317267
0.23679903 -0.190712 1.5137924 4288910464
0.24864781 -0.19143708 1.5118656 4288910464
-0.42952451 -0.18288068 1.5178924 4288910464
0.25819024 -0.1834801 1.5119994 4288910464
0.26688126 -0.18423358 1.5129833 4288910464
-0.72389668 -0.17511798 1.5156409 4292505814
-0.71441859 -0.17611803 1.5168117 4292505814
-0.57423395 -0.17536806 1.5196016 4288910464
-0.56436473 -0.17073596 1.5150881 4290675371
-0.55211812 -0.17236674 1.519864 4290675371
-0.53915197 -0.17305754 1.5149395 4290675371
-0.42771184 -0.17313436 1.5117338 4288910464
-0.74175936 -0.16358912 1.5125839 4292505814
-0.73228115 -0.16458917 1.5137547 4292505814
-0.71332484 -0.16658925 1.5160964 4292505814
-0.70384669 -0.16758929 1.5172671 4292505814
-0.69436842 -0.16858934 1.518438 4292505814
-0.68489027 -0.16958939 1.5196087 4292505814
-0.66019958 -0.16176723 1.5142626 4292505814
-0.65076375 -0.16276281 1.5154281 4292505814
-0.62485647 -0.1650942 1.5147536 4292505814
-0.59907973 -0.1674118 1.5140629 4292505814
-0.58968735 -0.16840281 1.5152231 4292505814
-0.57657468 -0.16910906 1.5103168 4292505814
-0.56916064 -0.16576673 1.5127037 4288910464
-0.43833211 -0.16437528 1.5179451 4288910464
-0.42461199 -0.16463816 1.5184052 4288910464
-0.42901579 -0.15538545 1.5184314 4288910464
-0.41826439 -0.15505308 1.5123973 4288910464
0.16805543 -0.15640953 1.5109015 4288910464
0.17684717 -0.15795617 1.5146383 4288910464
0.18562867 -0.15926576 1.5184581 4288910464
-0.42884621 -0.14622037 1.5186112 4288910464
0.15854923 -0.14411813 1.5120338 4288910464
0.16759506 -0.14529108 1.5131589 4288910464
-0.42867664 -0.13705529 1.5187908 4288910464
-0.44680056 -0.12753972 1.5183572 4288910464
-0.43597707 -0.12732026 1.5123233 4288910464
-0.42471081 -0.12439162 1.5139089 4288910464
-0.41775775 -0.12766933 1.5129342 4288910464
-0.27709648 -0.53614974 1.5292077 4287317267
-0.28370836 -0.52513623 1.5229501 4287317267
-0.27365974 -0.52817112 1.5288928 4287317267
-0.27741301 -0.51549447 1.5260425 4287317267
-0.2625387 -0.51755893 1.5271186 4287317267
-0.25675267 -0.51882297 1.5297384 4287317267
-0.24994259 -0.51715207 1.5208793 4287317267
-0.27624288 -0.50752091 1.5277473 4287317267
-0.2668235 -0.50885367 1.5288705 4287317267
-0.25897115 -0.50679058 1.5279568 4287317267
0.24399783 -0.20112114 1.5255711 4288910464
0.25276342 -0.20188107 1.5265635 4288910464
0.22966394 -0.19162305 1.5295298 4288910464
0.26547006 -0.19381139 1.5236771 4288910464
-0.68022662 -0.17092991 1.5279384 4292505814
-0.67070496 -0.17193455 1.5291145 4292505814
-0.6469776 -0.17358956 1.524292 4292505814
-0.63749939 -0.17458959 1.5254629 4292505814
-0.60906482 -0.17758973 1.5289752 4292505814
-0.5858019 -0.17921805 1.5242993 4292505814
-0.44477373 -0.1740329 1.5239482 4288910464
-0.61302048 -0.16674511 1.5200905 4292505814
-0.44751596 -0.16608092 1.5257328 4288910464
-0.43665117 -0.16773109 1.5275205 4288910464
0.15914185 -0.16472772 1.5255253 4288910464
-0.44727474 -0.15687984 1.5258651 4288910464
-0.43723139 -0.15686135 1.5228391 4288910464
-0.42547321 -0.15831698 1.5212448 4288910464
0.16850328 -0.15586852 1.5227531 4288910464
-0.43967104 -0.14651415 1.5246435 4288910464
-0.42489138 -0.14565086 1.526927 4288910464
-0.43950078 -0.13731191 1.5248239 4288910464
-0.4262172 -0.13124341 1.527887 4288910464
-0.44427577 -0.12141965 1.5279119 4288910464
-0.43337789 -0.1213553 1.5215508 4288910464
-0.2762284 -0.53897017 1.5319693 4287317267
-0.26702994 -0.53393602 1.5317361 4287317267
-0.2578845 -0.53156972 1.5359186 4287317267
-0.28311884 -0.52860379 1.533022 4287317267
-0.2764166 -0.52790588 1.5332489 4287317267
-0.26766694 -0.52600813 1.5339729 4287317267
-0.25774604 -0.52112573 1.5308321 4287317267
-0.28366935 -0.51618201 1.5335182 4287317267
-0.27380875 -0.51980519 1.5324955 4287317267
-0.26029894 -0.51246452 1.537155 4287317267
-0.2527166 -0.50922 1.5339785 4287317267
0.23997582 -0.20205532 1.5381967 4288910464
0.26401114 -0.20349762 1.5343775 4288910464
0.2728135 -0.20426075 1.535374 4288910464
-0.65744942 -0.18391435 1.5393639 4292505814
-0.60515195 -0.18853952 1.5380665 4292505814
-0.5806303 -0.18058985 1.5324876 4290675371
-0.57115215 -0.1815899 1.5336585 4290675371
-0.561674 -0.18258995 1.5348293 4290675371
-0.55219579 -0.18358998 1.5360001 4290675371
-0.45157593 -0.18387979 1.5311364 4288910464
-0.44234806 -0.18405659 1.5314459 4288910464
-0.70527536 -0.17886823 1.533456 4292505814
-0.69571018 -0.17987746 1.5346376 4292505814
-0.66118324 -0.17293918 1.5302907 4292505814
-0.63261825 -0.17595308 1.5338193 4292505814
-0.62309653 -0.17695771 1.5349954 4292505814
-0.59958673 -0.17858976 1.530146 4292505814
0.16913205 -0.16664191 1.5332111 4288910464
0.17802651 -0.16694415 1.532654 4288910464
0.18686783 -0.16699983 1.5321754 4288910464
-0.45089161 -0.14689431 1.5318617 4288910464
-0.44713753 -0.14497504 1.5352893 4288910464
-0.43790817 -0.14528847 1.5353191 4288910464
-0.45072055 -0.13764794 1.532043 4288910464
-0.44666708 -0.131109 1.5354162 4288910464
-0.43743768 -0.13142243 1.535446 4288910464
-0.4230369 -0.13817835 1.5329713 4288910464
-0.27676207 -0.52192235 1.541859 4287317267
-0.2750299 -0.51291955 1.5447202 4287317267
-0.26700404 -0.51434606 1.5426781 4287317267
-0.27451393 -0.50454378 1.5417802 4288910464
0.25678819 -0.21244687 1.5410631 4288910464
0.26818326 -0.21413448 1.5491019 4288910464
-0.70642203 -0.19032928 1.549491 4292505814
-0.59049314 -0.19097891 1.5476347 4290675371
-0.44588217 -0.19461264 1.5439353 4288910464
-0.71116143 -0.18889223 1.5411443 4292505814
-0.69083774 -0.18126076 1.5427927 4292505814
-0.68123019 -0.18227446 1.5439795 4292505814
-0.67162263 -0.18328816 1.5451663 4292505814
-0.64534211 -0.18562642 1.544636 4292505814
-0.6287539 -0.18694203 1.5429085 4292505814
-0.61918873 -0.18795124 1.54409 4292505814
-0.60005832 -0.18996969 1.5464531 4292505814
-0.72461045 -0.17859015 1.5463784 4292505814
-0.45174968 -0.17852497 1.5477705 4288910464
-0.44072598 -0.17824173 1.5414118 4288910464
-0.43145952 -0.17855643 1.5414417 4288910464
0.16922249 -0.17670743 1.5477421 4288910464
0.17852831 -0.17832989 1.5488883 4288910464
0.18808539 -0.17489426 1.5458758 4288910464
0.17083339 -0.16283156 1.5444012 4288910464
-0.28496888 -0.51256585 1.5539544 4287317267
0.24628863 -0.21359351 1.5597121 4288910464
0.25283411 -0.21348237 1.5539086 4288910464
0.27706018 -0.21490408 1.550107 4288910464
-0.70159554 -0.19177555 1.5578486 4292505814
-0.69190103 -0.19279842 1.5590461 4292505814
-0.58515471 -0.19241139 1.5558474 4290675371
-0.57554716 -0.19342509 1.5570341 4290675371
-0.45722511 -0.1952112 1.5511453 4288910464
-0.4448064 -0.1889149 1.5553015 4288910464
0.1752826 -0.18087047 1.5577056 4288910464
0.18928139 -0.18294899 1.5595596 4288910464
0.17082891 -0.17140605 1.5513765 4288910464
0.18012501 -0.17278631 1.5526075 4288910464
-0.2702975 -0.54554421 1.5630802 4287317267
0.25436231 -0.22334002 1.5616012 4288910464
0.26331285 -0.22411598 1.5626144 4288910464
0.27226335 -0.22489196 1.5636278 4288910464
0.28121388 -0.22566792 1.5646412 4288910464
-0.60465002 -0.20200427 1.569824 4290675371
-0.58095837 -0.20356697 1.5649892 4290675371
-0.46115932 -0.20608822 1.564816 4288910464
-0.68220645 -0.19382128 1.5602436 4292505814
-0.67708248 -0.19527428 1.5684338 4292505814
-0.66281742 -0.19586703 1.5626388 4292505814
-0.65312278 -0.19688991 1.5638363 4292505814
-0.64342821 -0.19791278 1.5650338 4292505814
-0.63373375 -0.19893564 1.5662314 4292505814
0.17996506 -0.19031142 1.5652869 4288910464
0.18934081 -0.19170351 1.5665286 4288910464
-0.45624214 -0.18935162 1.5628575 4288910464
0.16940762 -0.18699329 1.5633007 4288910464
0.17879848 -0.18863055 1.5644573 4288910464
-0.64317566 -0.45118821 1.5798349 4294966010
-0.65598464 -0.44833565 1.5782626 4294966010
-0.64174724 -0.44160649 1.5787399 4294966010
-0.63922524 -0.44220537 1.579571 4294966010
-0.62033606 -0.44397712 1.578546 4294966010
-0.61144787 -0.4449217 1.5796318 4294966010
-0.61706519 -0.43318909 1.5723019 4294966010
-0.60821366 -0.43412977 1.5733831 4294966010
-0.61608744 -0.42769033 1.5780151 4294966010
-0.60862416 -0.42572117 1.576736 4294966010
-0.61841667 -0.41533729 1.5786349 4294966010
-0.61548245 -0.40503079 1.5799574 4294966010
0.25835589 -0.23426199 1.5763378 4288910464
0.26738107 -0.23504443 1.5773596 4288910464
0.28543136 -0.23660931 1.5794032 4288910464
-0.67373735 -0.20664506 1.5785077 4292505814
-0.66395122 -0.2076776 1.5797164 4292505814
-0.62839794 -0.20041099 1.5744476 4292505814
-0.5949555 -0.20302714 1.5710216 4290675371
-0.45541191 -0.20778261 1.5789893 4288910464
0.16958678 -0.19746386 1.5790677 4288910464
0.18121096 -0.19855893 1.5799754 4288910464
-0.6447618 -0.46102816 1.5853314 4294966010
-0.61603618 -0.46448371 1.5856994 4294966010
-0.66618496 -0.45038322 1.58664 4294966010
-0.65435946 -0.45106074 1.5858456 4294966010
-0.64180624 -0.45239794 1.5850407 4294966010
-0.63483965 -0.45339808 1.5875351 4294966010
-0.6264661 -0.45388478 1.5874019 4294966010
-0.61655372 -0.45477679 1.586171 4294966010
-0.60542512 -0.45643803 1.5865829 4294966010
-0.59684044 -0.45768458 1.5880616 4294966010
-0.67306203 -0.44200158 1.5848083 4294966010
-0.66627622 -0.44240701 1.5860583 4294966010
-0.65595818 -0.44347829 1.5867785 4294966010
-0.64489454 -0.44347987 1.5833137 4294966010
-0.63580853 -0.44476828 1.5847062 4294966010
-0.62423301 -0.44498566 1.5825781 4294966010
-0.61530006 -0.4468534 1.5873753 4294966010
-0.60405874 -0.4459362 1.5879965 4294966010
-0.59413403 -0.4477962 1.5866894 4294966010
-0.67301023 -0.43411347 1.5878813 4294966010
-0.66430813 -0.43375635 1.5887508 4294966010
-0.653373 -0.43566334 1.5869765 4294966010
-0.64273936 -0.43652481 1.5862639 4294966010
-0.63431168 -0.43534938 1.5879122 4294966010
-0.62441927 -0.43523142 1.5851494 4294966010
-0.61518884 -0.43643522 1.5830948 4294966010
-0.60654813 -0.43347758 1.5832627 4294966010
-0.6726855 -0.42454436 1.5879689 4294966010
-0.65623021 -0.42549682 1.5872567 4294966010
-0.64496827 -0.42665854 1.5881038 4294966010
-0.63446969 -0.42584217 1.5880923 4294966010
-0.6258347 -0.42623463 1.5876 4294966010
-0.61459899 -0.42444134 1.5831499 4294966010
-0.60381985 -0.42462665 1.5821562 4294966010
-0.63054919 -0.41509551 1.5897018 4294966010
-0.62720227 -0.41672331 1.5883129 4294966010
-0.61658764 -0.41778952 1.5868509 4294966010
-0.60743499 -0.4161312 1.5864643 4294966010
-0.59937137 -0.41781315 1.5818145 4294966010
-0.66599584 -0.40495181 1.5882854 4294966010
-0.65602177 -0.40609133 1.589352 4294966010
-0.62426639 -0.40702838 1.5882983 4294966010
-0.61242044 -0.4080036 1.5875211 4294966010
-0.60891682 -0.40176153 1.5856212 4294966010
-0.59999198 -0.40270999 1.5867114 4294966010
-0.61116225 -0.37068036 1.589904 4294966010
0.25986597 -0.24430487 1.5840484 4288910464
0.26892784 -0.24509048 1.5850743 4288910464
0.27887753 -0.23679398 1.5852138 4288910464
-0.66969758 -0.21805438 1.5876539 4292505814
-0.64890403 -0.2102465 1.5893404 4292505814
-0.60523432 -0.21387282 1.5869696 4290675371
-0.59544826 -0.21490535 1.5881785 4290675371
-0.65873361 -0.20920938 1.5881262 4292505814
-0.62367737 -0.20196936 1.5838133 4292505814
0.18119803 -0.20752348 1.5869161 4288910464
0.17906384 -0.19911616 1.580235 4288910464
0.190672 -0.19996369 1.5812284 4288910464
-0.64840311 -0.46237287 1.5995452 4294966010
-0.6341368 -0.46328437 1.5927205 4294966010
-0.62435484 -0.46429539 1.5963986 4294966010
-0.6150918 -0.46675333 1.5984073 4294966010
-0.65276521 -0.45276451 1.5921997 4294966010
-0.64914566 -0.45784166 1.5902933 4294966010
-0.63950634 -0.45802635 1.5906165 4294966010
-0.62865007 -0.45678777 1.5952337 4294966010
-0.61416674 -0.45609164 1.5957949 4294966010
-0.60416526 -0.45785955 1.5935535 4294966010
-0.59763706 -0.45153564 1.5968053 4294966010
-0.67370343 -0.44520789 1.5962839 4294966010
-0.66406339 -0.4454636 1.5964618 4294966010
-0.65623695 -0.4452168 1.5921987 4294966010
-0.64824224 -0.44735348 1.5928712 4294966010
-0.63792074 -0.44684979 1.5952907 4294966010
-0.62832391 -0.44717571 1.5953217 4294966010
-0.61558533 -0.44431257 1.594188 4294966010
-0.60631436 -0.44625857 1.5970168 4294966010
-0.59667355 -0.44299769 1.5966074 4294966010
-0.67309713 -0.4341563 1.5944868 4294966010
-0.66425496 -0.43501902 1.5959281 4294966010
-0.65417325 -0.43302003 1.5959883 4294966010
-0.64465296 -0.43219686 1.5944519 4294966010
-0.6354208 -0.43337065 1.5947378 4294966010
-0.62950963 -0.4388938 1.5913185 4294966010
-0.60129368 -0.43384883 1.5925007 4294966010
-0.59615254 -0.43246692 1.594146 4294966010
-0.67309779 -0.42634168 1.5954971 4294966010
-0.66384745 -0.42478213 1.5970316 4294966010
-0.65388536 -0.42390764 1.5981323 4294966010
-0.64501053 -0.42403218 1.5968363 4294966010
-0.63514614 -0.4243283 1.5946887 4294966010
-0.62425053 -0.42314124 1.5972354 4294966010
-0.61797345 -0.42671722 1.591156 4294966010
-0.60529637 -0.4262144 1.5943992 4294966010
-0.59518641 -0.42342561 1.5941025 4294966010
-0.68254018 -0.41355425 1.5965711 4294966010
-0.67532969 -0.41670999 1.5954309 4294966010
-0.66473585 -0.41751775 1.5930461 4294966010
-0.65272009 -0.41602212 1.5965276 4294966010
-0.64453566 -0.41638839 1.5973506 4294966010
-0.63689607 -0.41371021 1.5978032 4294966010
-0.6272555 -0.41383123 1.5960118 4294966010
-0.61494535 -0.4120245 1.5928899 4294966010
-0.60672837 -0.41671172 1.594095 4294966010
-0.66505623 -0.40707716 1.5924177 4294966010
-0.65656495 -0.40838617 1.5937626 4294966010
-0.64440584 -0.40866524 1.5952375 4294966010
-0.63346225 -0.40556994 1.5975271 4294966010
-0.622365 -0.4037489 1.5966039 4294966010
-0.61495316 -0.40488151 1.5963202 4294966010
-0.60968435 -0.40158305 1.5963912 4294966010
-0.66795623 -0.39755455 1.5960101 4294966010
-0.657933 -0.39869967 1.5970819 4294966010
-0.64400351 -0.39888471 1.5961275 4294966010
-0.63483298 -0.39837813 1.5905565 4294966010
-0.62470233 -0.39718089 1.59568 4294966010
-0.61432791 -0.39445144 1.5964792 4294966010
-0.6048336 -0.39338607 1.5943398 4294966010
-0.67245412 -0.38689315 1.5998297 4294966010
-0.63883066 -0.38776436 1.5935125 4294966010
-0.6223104 -0.38796318 1.5974669 4294966010
-0.61341137 -0.38715601 1.598417 4294966010
-0.60440111 -0.38579169 1.5969793 4294966010
-0.62412214 -0.37201026 1.5974979 4294966010
-0.61611795 -0.37060511 1.5960566 4294966010
-0.60962689 -0.36884958 1.5980501 4294966010
0.28045744 -0.24688004 1.5929362 4288910464
-0.6500383 -0.22012864 1.5900823 4292505814
-0.64469534 -0.22171792 1.5985116 4292505814
-0.63482219 -0.22275965 1.5997312 4292505814
-0.62054938 -0.22324002 1.593725 4290675371
-0.61071968 -0.22427715 1.5949392 4290675371
-0.66444159 -0.2196345 1.5960723 4292505814
-0.63907433 -0.21128362 1.5905547 4292505814
-0.62924469 -0.21232074 1.5917689 4292505814
-0.61941504 -0.21335788 1.5929831 4290675371
-0.6929217 -0.20658351 1.5916684 4292505814
0.16971101 -0.20809396 1.5946335 4288910464
0.19198009 -0.20839562 1.5959101 4288910464
-0.62578338 -0.47200128 1.6058277 4294966010
-0.61605716 -0.47218761 1.6061538 4294966010
-0.64064074 -0.4631151 1.6001905 4294966010
-0.63414943 -0.46227294 1.6077415 4294966010
-0.62755948 -0.46580893 1.6069968 4294966010
-0.61587685 -0.46244186 1.6063449 4294966010
-0.67004842 -0.45744371 1.6026818 4294966010
-0.64112574 -0.45842591 1.6027751 4294966010
-0.62306201 -0.45799041 1.6015594 4294966010
-0.61892676 -0.45882389 1.6064402 4294966010
-0.60562813 -0.45548433 1.6040517 4294966010
-0.68359995 -0.44164592 1.6044441 4294966010
-0.60166138 -0.44485375 1.605327 4294966010
-0.67369336 -0.43208656 1.6049614 4294966010
-0.60562754 -0.43717673 1.6059394 4294966010
-0.59897798 -0.43386284 1.6071219 4294966010
-0.68323928 -0.42215446 1.6048263 4294966010
-0.67602372 -0.42280757 1.6019862 4294966010
-0.66378677 -0.42252716 1.6054786 4294966010
-0.6065588 -0.42522207 1.6034366 4294966010
-0.68177211 -0.41599515 1.6049581 4294966010
-0.67362809 -0.41467038 1.6054771 4294966010
-0.66422951 -0.41562819 1.6018276 4294966010
-0.65617061 -0.41115609 1.6049052 4294966010
-0.64725256 -0.41149998 1.6043577 4294966010
-0.63442767 -0.41334054 1.6066481 4294966010
-0.62483174 -0.41210535 1.6005296 4294966010
-0.61185771 -0.41460666 1.6081376 4294966010
-0.6039362 -0.41393977 1.6034832 4294966010
-0.68430948 -0.40835908 1.6034033 4294966010
-0.67408419 -0.4062624 1.6069975 4294966010
-0.6644128 -0.40502635 1.6038598 4294966010
-0.65646654 -0.40390518 1.6058834 4294966010
-0.64690721 -0.40428361 1.6049402 4294966010
-0.63459241 -0.40359262 1.6019253 4294966010
-0.62519419 -0.40492439 1.6056361 4294966010
-0.61621904 -0.40405092 1.6004202 4294966010
-0.60841703 -0.40637749 1.6054881 4294966010
-0.5976963 -0.4087646 1.6066374 4294966010
-0.67507339 -0.39859217 1.6086543 4294966010
-0.66538537 -0.39558026 1.6070644 4294966010
-0.65593636 -0.39600551 1.6063827 4294966010
-0.64550525 -0.39592043 1.6075763 4294966010
-0.63302141 -0.39403296 1.6060427 4294966010
-0.62369281 -0.39608589 1.6027383 4294966010
-0.61573768 -0.39670113 1.6024187 4294966010
-0.60584134 -0.39262241 1.6046674 4294966010
-0.59672207 -0.39964819 1.6065935 4294966010
-0.65495336 -0.38672256 1.6059421 4294966010
-0.64449149 -0.38741246 1.6071268 4294966010
-0.633955 -0.38600573 1.6046224 4294966010
-0.62499368 -0.38415951 1.60676 4294966010
-0.61548203 -0.38375461 1.6055486 4294966010
-0.60664862 -0.38497293 1.6025779 4294966010
-0.67440289 -0.37936765 1.6094319 4294966010
-0.6642586 -0.37133804 1.608443 4294966010
-0.64239788 -0.3728562 1.6095601 4294966010
-0.63323885 -0.37913233 1.6082859 4294966010
-0.62392795 -0.37394738 1.6052881 4294966010
-0.61448765 -0.37654918 1.6064823 4294966010
-0.60493577 -0.37633219 1.6071433 4294966010
-0.59689045 -0.37793195 1.6093898 4294966010
-0.64532685 -0.3657608 1.6045732 4294966010
-0.63186806 -0.36489344 1.608601 4294966010
-0.62396884 -0.3617858 1.6088252 4294966010
-0.61442685 -0.36477637 1.6049061 4294966010
-0.60741436 -0.3652969 1.6068137 4294966010
-0.62333351 -0.35265338 1.6074871 4294966010
-0.61557072 -0.3535549 1.6062372 4294966010
-0.60795462 -0.35432976 1.6028174 4294966010
-0.62428933 -0.34339646 1.6088829 4294966010
-0.61808848 -0.34454125 1.6093185 4294966010
-0.62608832 -0.23372728 1.6016959 4290675371
0.18240336 -0.21607217 1.601573 4288910464
-0.65686619 -0.47171521 1.6176001 4294966010
-0.6471383 -0.47204557 1.6176316 4294966010
-0.63646346 -0.47211647 1.6116328 4294966010
-0.62768269 -0.47270629 1.6176943 4294966010
-0.61795485 -0.47303665 1.6177257 4294966010
-0.65368962 -0.46006104 1.6103164 4294966010
-0.61762428 -0.46329337 1.6178149 4294966010
-0.6633746 -0.45973217 1.610285 4294966010
-0.61462069 -0.45167634 1.6105301 4294966010
-0.60860485 -0.45479569 1.6143423 4294966010
-0.69635636 -0.44332108 1.6115857 4294966010
-0.60106671 -0.44151708 1.6146871 4294966010
-0.68640494 -0.43371841 1.6121054 4294966010
-0.60402822 -0.43359917 1.6184219 4294966010
-0.59712774 -0.43982068 1.6145606 4294966010
-0.61597133 -0.4145771 1.6182609 4294966010
-0.60500145 -0.41663072 1.6158469 4294966010
-0.59832764 -0.41256386 1.6174526 4294966010
-0.68076968 -0.40087259 1.6107554 4294966010
-0.67358798 -0.40286875 1.6118977 4294966010
-0.66231644 -0.40168273 1.6135197 4294966010
-0.61207664 -0.40315452 1.6127743 4294966010
-0.60422933 -0.40398145 1.6185803 4294966010
-0.68044055 -0.39117229 1.6108443 4294966010
-0.6753093 -0.39417124 1.613019 4294966010
-0.66490883 -0.39408779 1.616176 4294966010
-0.65329438 -0.39627519 1.6139625 4294966010
-0.64428824 -0.39600602 1.6129971 4294966010
-0.6223309 -0.39314568 1.6110318 4294966010
-0.61629927 -0.39547995 1.6168028 4294966010
-0.60525042 -0.39612007 1.6145085 4294966010
-0.59626174 -0.39352584 1.6158661 4294966010
-0.68307441 -0.38303488 1.6183087 4294966010
-0.67400265 -0.38401753 1.6187055 4294966010
-0.66555065 -0.384931 1.612677 4294966010
-0.65446728 -0.38287497 1.6128742 4294966010
-0.64425147 -0.38326102 1.6146297 4294966010
-0.63525236 -0.38378176 1.6121794 4294966010
-0.62531376 -0.38290209 1.6126196 4294966010
-0.61323595 -0.38423753 1.6137205 4294966010
-0.60359728 -0.38515544 1.6137683 4294966010
-0.59730798 -0.3856492 1.6133757 4294966010
-0.58928239 -0.38128495 1.618139 4294966010
-0.67339402 -0.37448591 1.6181245 4294966010
-0.6611464 -0.37532195 1.6157968 4294966010
-0.65271294 -0.37513214 1.6164143 4294966010
-0.64474225 -0.37420052 1.6164205 4294966010
-0.63509148 -0.37542957 1.6127428 4294966010
-0.62578535 -0.37579617 1.6132603 4294966010
-0.6167202 -0.37742293 1.6122808 4294966010
-0.60240155 -0.37290758 1.6125038 4294966010
-0.59584999 -0.3763141 1.6146457 4294966010
-0.66375107 -0.36582997 1.6168467 4294966010
-0.65315759 -0.3663466 1.6182839 4294966010
-0.64426214 -0.36430073 1.6171256 4294966010
-0.63521022 -0.36464775 1.6147784 4294966010
-0.62562299 -0.36690384 1.6162205 4294966010
-0.61613017 -0.36492965 1.6130509 4294966010
-0.60745883 -0.36498943 1.6135297 4294966010
-0.59426785 -0.36898947 1.6154962 4294966010
-0.67086464 -0.35411793 1.6162318 4294966010
-0.66069925 -0.3552793 1.6173187 4294966010
-0.65182364 -0.35804555 1.6185129 4294966010
-0.64279044 -0.35607243 1.6164768 4294966010
-0.63546401 -0.35400027 1.6174483 4294966010
-0.62464881 -0.35564622 1.6169363 4294966010
-0.61216402 -0.35442173 1.6155763 4294966010
-0.60541618 -0.3545664 1.6167488 4294966010
-0.59658319 -0.35726586 1.6199647 4294966010
-0.6347748 -0.34537423 1.6172786 4294966010
-0.62513429 -0.34500444 1.6142595 4294966010
-0.61397082 -0.34629527 1.6160892 4294966010
-0.60541558 -0.34615773 1.6174417 4294966010
-0.59560037 -0.34806857 1.6199205 4294966010
-0.6378392 -0.3372342 1.6176001 4294966010
-0.6248197 -0.33718026 1.6176112 4294966010
-0.61372298 -0.33710653 1.6143878 4294966010
-0.60379368 -0.33672154 1.6174974 4294966010
-0.59689116 -0.33907408 1.6193788 4294966010
-0.61405528 -0.32855469 1.6182163 4294966010
-0.60248309 -0.32372749 1.6151576 4294966010
-0.59472215 -0.32637298 1.6193013 4294966010
-0.61293149 -0.31886411 1.617721 4294966010
-0.60127652 -0.3149094 1.6186521 4294966010
-0.65590769 -0.28728023 1.6180398 4294966010
-0.6453259 -0.23394971 1.6156838 4292505814
0.1835856 -0.22479261 1.616212 4288910464
0.19326051 -0.22622913 1.6174933 4288910464
0.19329943 -0.21698594 1.6107829 4288910464
-0.61142141 -0.46654284 1.6216296 4294966010
-0.60142523 -0.4568969 1.6221515 4294966010
-0.60124326 -0.44706291 1.6223443 4294966010
-0.59573799 -0.43757829 1.6256599 4294966010
-0.60619581 -0.42568988 1.6226642 4294966010
-0.5951485 -0.42496303 1.6247002 4294966010
-0.61051166 -0.41737288 1.6225936 4294966010
-0.60662007 -0.41551363 1.621428 4294966010
-0.59584355 -0.41532016 1.6218317 4294966010
-0.6125263 -0.4049347 1.6243254 4294966010
-0.60428119 -0.40459058 1.6284024 4294966010
-0.59759498 -0.40488774 1.6249428 4294966010
-0.66903377 -0.39657667 1.6210048 4294966010
-0.61643785 -0.39073533 1.6219152 4294966010
-0.60342193 -0.39448833 1.6265846 4294966010
-0.59585297 -0.39691705 1.6261041 4294966010
-0.67432547 -0.38681841 1.6213043 4294966010
-0.66356164 -0.38497269 1.624967 4294966010
-0.62616158 -0.38834575 1.6203189 4294966010
-0.61569631 -0.38326308 1.6212622 4294966010
-0.60351491 -0.38357401 1.6274533 4294966010
-0.59942353 -0.38472414 1.6272848 4294966010
-0.68578547 -0.3748526 1.6259735 4294966010
-0.67517537 -0.37547183 1.624112 4294966010
-0.66506881 -0.37553263 1.6215172 4294966010
-0.65459776 -0.37634546 1.6231394 4294966010
-0.64904124 -0.3772848 1.6220486 4294966010
-0.61495477 -0.37579075 1.6206092 4294966010
-0.60329258 -0.37527287 1.623982 4294966010
-0.59717393 -0.37329453 1.6276517 4294966010
-0.6727128 -0.3673518 1.6294516 4294966010
-0.66413552 -0.36385894 1.6255487 4294966010
-0.65748036 -0.36595377 1.6246896 4294966010
-0.64886206 -0.36657465 1.6228349 4294966010
-0.63904494 -0.3676388 1.6225705 4294966010
-0.60438937 -0.36520153 1.6226461 4294966010
-0.59630668 -0.36344135 1.6215125 4294966010
-0.6710676 -0.35529631 1.6245399 4294966010
-0.66442829 -0.35612753 1.6244196 4294966010
-0.65402007 -0.35372335 1.6221879 4294966010
-0.64573216 -0.35322285 1.6216652 4294966010
-0.63734609 -0.35550624 1.6224341 4294966010
-0.62940776 -0.35311508 1.6215692 4294966010
-0.60439658 -0.35761607 1.6223013 4294966010
-0.59512371 -0.35307908 1.6215359 4294966010
-0.66254991 -0.34739983 1.6250035 4294966010
-0.65541154 -0.34591755 1.6266847 4294966010
-0.64658612 -0.34543374 1.6253452 4294966010
-0.63420635 -0.34562314 1.6226453 4294966010
-0.62502003 -0.34723228 1.6224215 4294966010
-0.61301547 -0.34043968 1.624401 4294966010
-0.60518152 -0.34454417 1.6246794 4294966010
-0.59764433 -0.34350109 1.626439 4294966010
-0.6543225 -0.3378433 1.6267682 4294966010
-0.64568633 -0.33569217 1.6266422 4294966010
-0.63520437 -0.33540037 1.6256129 4294966010
-0.62388361 -0.33724931 1.6237422 4294966010
-0.61511302 -0.33439413 1.6254585 4294966010
-0.60576922 -0.33367956 1.6269916 4294966010
-0.59485173 -0.332102 1.6240585 4294966010
-0.64475501 -0.32741553 1.6264338 4294966010
-0.63300198 -0.32752216 1.623733 4294966010
-0.62571108 -0.32817352 1.6258512 4294966010
-0.61419606 -0.32580361 1.6267182 4294966010
-0.60455382 -0.32479447 1.6258798 4294966010
-0.59714639 -0.32212484 1.6268207 4294966010
-0.63398588 -0.31894124 1.6272296 4294966010
-0.62314385 -0.31492549 1.6264213 4294966010
-0.61257541 -0.31096214 1.6263096 4294966010
-0.60864413 -0.3177582 1.6255553 4294966010
-0.63278627 -0.30874431 1.6256019 4294966010
-0.61244762 -0.30199265 1.6288209 4294966010
-0.60167468 -0.30265832 1.6294132 4294966010
-0.8035413 -0.19095647 1.6275667 4292505814
-0.79338539 -0.19202802 1.6288213 4292505814
-0.86027253 -0.18603104 1.6293415 4292505814
-0.84416497 -0.18667026 1.6225486 4292505814
-0.83400911 -0.18774182 1.6238031 4292505814
-0.82385314 -0.18881336 1.6250577 4292505814
-0.81369722 -0.18988492 1.6263121 4292505814
-0.59623724 -0.42140865 1.6390131 4294966010
-0.6116339 -0.41840637 1.6334423 4294966010
-0.60251725 -0.41899621 1.6318424 4294966010
-0.59580147 -0.41357851 1.6363741 4294966010
-0.61130029 -0.40857482 1.6335323 4294966010
-0.6022591 -0.40914196 1.6319842 4294966010
-0.59700251 -0.40220588 1.6362736 4294966010
-0.58639491 -0.40058666 1.6353908 4294966010
-0.61096674 -0.39874336 1.6336223 4294966010
-0.60191035 -0.39486784 1.6327174 4294966010
-0.59648836 -0.39379096 1.6360183 4294966010
-0.60266834 -0.38962185 1.6307919 4294966010
-0.59662104 -0.38698173 1.6381974 4294966010
-0.67457533 -0.37025565 1.6373286 4294966010
-0.66466832 -0.37044546 1.6376609 4294966010
-0.61029953 -0.37908038 1.6338023 4294966010
-0.60216975 -0.37753916 1.6345768 4294966010
-0.59350896 -0.37630069 1.6387742 4294966010
-0.66667312 -0.36388367 1.6357789 4294966010
-0.60444355 -0.36592025 1.6349156 4294966010
-0.59596896 -0.36502299 1.6381092 4294966010
-0.68010706 -0.35641181 1.6318458 4294966010
-0.67307937 -0.3533459 1.6323234 4294966010
-0.66598415 -0.3534559 1.6325307 4294966010
-0.65439391 -0.35078147 1.6383823 4294966010
-0.64154893 -0.3592355 1.6300508 4294966010
-0.61197734 -0.3598021 1.6310424 4294966010
-0.60171771 -0.356565 1.6326797 4294966010
-0.59680355 -0.35282776 1.6336195 4294966010
-0.58867973 -0.35013491 1.6323596 4294966010
-0.67427945 -0.34689572 1.6360505 4294966010
-0.6661635 -0.34556514 1.6315994 4294966010
-0.65719581 -0.34574485 1.6318294 4294966010
-0.64136618 -0.34935856 1.6302445 4294966010
-0.63371998 -0.34166414 1.6342523 4294966010
-0.61179459 -0.34992513 1.6312361 4294966010
-0.60517609 -0.34639919 1.634379 4294966010
-0.59588158 -0.34303826 1.6343216 4294966010
-0.58954674 -0.34317082 1.6373214 4294966010
-0.67352498 -0.33929327 1.6353861 4294966010
-0.66602588 -0.33432099 1.6362648 4294966010
-0.65864563 -0.33682841 1.6354393 4294966010
-0.64479023 -0.33532584 1.6308304 4294966010
-0.6340574 -0.33633301 1.6325226 4294966010
-0.62368345 -0.33374092 1.6300428 4294966010
-0.61562085 -0.33461466 1.6317842 4294966010
-0.60167599 -0.33441836 1.635752 4294966010
-0.59679294 -0.33394116 1.6360948 4294966010
-0.5885058 -0.33510217 1.6307476 4294966010
-0.66798127 -0.32868746 1.639078 4294966010
-0.65466166 -0.32601371 1.6362494 4294966010
-0.64575028 -0.32506329 1.6366779 4294966010
-0.63506544 -0.32539636 1.6341599 4294966010
-0.62413371 -0.32422417 1.6324592 4294966010
-0.6157251 -0.32546204 1.6335573 4294966010
-0.60658717 -0.32599196 1.633655 4294966010
-0.59580237 -0.32565871 1.6357316 4294966010
-0.66364813 -0.31068045 1.6384249 4294966010
-0.65333498 -0.31185871 1.6395277 4294966010
-0.64279121 -0.31739303 1.6363628 4294966010
-0.63465679 -0.31729332 1.6379253 4294966010
-0.62628758 -0.31565917 1.6365023 4294966010
-0.61519688 -0.31374717 1.6368893 4294966010
-0.60733855 -0.31636864 1.6354494 4294966010
-0.59604132 -0.31429002 1.6332324 4294966010
-0.66236502 -0.3003484 1.6374646 4294966010
-0.64173871 -0.3027049 1.6396704 4294966010
-0.63533211 -0.30572602 1.6352205 4294966010
-0.62696719 -0.30444807 1.6366017 4294966010
-0.61423498 -0.30502081 1.6370634 4294966010
-0.60605776 -0.30387074 1.6326723 4294966010
-0.59338164 -0.30425322 1.6315924 4294966010
-0.62420899 -0.29377902 1.6360706 4294966010
-0.61741948 -0.29702714 1.6377683 4294966010
-0.60440302 -0.29485461 1.6375601 4294966010
-0.59482384 -0.29599035 1.6389527 4294966010
-0.61854613 -0.28439724 1.6399558 4294966010
-0.60474801 -0.28642637 1.6382817 4294966010
-0.59551513 -0.28740755 1.6394095 4294966010
-0.78322941 -0.19309957 1.6300758 4292505814
-0.5945406 -0.42077935 1.6408817 4294966010
-0.59420556 -0.41090491 1.6409721 4294966010
-0.59556305 -0.40468073 1.6465445 4294966010
-0.58764911 -0.40087211 1.6478707 4294966010
-0.60339433 -0.39082122 1.641121 4294966010
-0.59386116 -0.39419988 1.6434993 4294966010
-0.58707392 -0.39354125 1.6437851 4294966010
-0.59632742 -0.38342157 1.6436559 4294966010
-0.58614022 -0.38566723 1.646542 4294966010
-0.60272419 -0.37107229 1.6413019 4294966010
-0.59622902 -0.37534305 1.6446905 4294966010
-0.58616924 -0.37641519 1.6458261 4294966010
-0.68159479 -0.36839387 1.6410474 4294966010
-0.67728233 -0.36179557 1.6450032 4294966010
-0.60537899 -0.36287963 1.6499668 4294966010
-0.59447718 -0.36556503 1.6471826 4294966010
-0.68415439 -0.35507667 1.6430013 4294966010
-0.67709786 -0.35182455 1.6451987 4294966010
-0.60345638 -0.35152698 1.640763 4294966010
-0.59513092 -0.35466242 1.6482579 4294966010
-0.68244147 -0.34669518 1.6432974 4294966010
-0.67691338 -0.34185356 1.6453942 4294966010
-0.61157793 -0.34111413 1.6415412 4294966010
-0.60467505 -0.34180367 1.6402379 4294966010
-0.59690392 -0.34275639 1.6454353 4294966010
-0.68363816 -0.33041456 1.6499836 4294966010
-0.67073083 -0.33910534 1.6413503 4294966010
-0.66701424 -0.33271009 1.6419463 4294966010
-0.65540951 -0.33170187 1.640847 4294966010
-0.6029377 -0.33172563 1.641048 4294966010
-0.59499317 -0.33297449 1.6431741 4294966010
-0.67352593 -0.32578826 1.6443174 4294966010
-0.66372919 -0.32377785 1.6441699 4294966010
-0.65847647 -0.32601625 1.6409605 4294966010
-0.64719754 -0.32127407 1.6415741 4294966010
-0.62076664 -0.32103041 1.6416903 4294966010
-0.61090785 -0.32136521 1.641722 4294966010
-0.60261148 -0.32355511 1.6422108 4294966010
-0.59690964 -0.32604551 1.6486528 4294966010
-0.58975387 -0.32805783 1.6429011 4294966010
-0.66460299 -0.31625631 1.6464152 4294966010
-0.65377712 -0.31587163 1.6432186 4294966010
-0.64595473 -0.31535557 1.643784 4294966010
-0.63338536 -0.31269825 1.6436589 4294966010
-0.62713861 -0.31199175 1.6437747 4294966010
-0.61589837 -0.31333536 1.6419207 4294966010
-0.60440397 -0.31432533 1.644195 4294966010
-0.59530205 -0.31494179 1.6422075 4294966010
-0.58826137 -0.31557882 1.6423539 4294966010
-0.65482724 -0.30669618 1.6472441 4294966010
-0.6465925 -0.30756992 1.6463813 4294966010
-0.63648641 -0.30662155 1.6458089 4294966010
-0.62317801 -0.30410194 1.6476555 4294966010
-0.61238045 -0.30506951 1.6441672 4294966010
-0.60444766 -0.30529061 1.6454818 4294966010
-0.59453785 -0.30221713 1.641144 4294966010
-0.65676904 -0.29088068 1.6475521 4294966010
-0.64407033 -0.29801819 1.6476387 4294966010
-0.63346994 -0.29308236 1.64658 4294966010
-0.62216932 -0.29432213 1.6463457 4294966010
-0.61337507 -0.29542828 1.6480111 4294966010
-0.60508007 -0.29565945 1.645998 4294966010
-0.59685123 -0.29511541 1.6459839 4294966010
-0.63591528 -0.28488225 1.6477566 4294966010
-0.62398809 -0.28466865 1.6470234 4294966010
-0.61405361 -0.28599823 1.6471944 4294966010
-0.60519874 -0.28547674 1.6482453 4294966010
-0.63597023 -0.27442867 1.6469579 4294966010
-0.62384498 -0.27562627 1.64537 4294966010
-0.61553943 -0.27615952 1.646667 4294966010
-0.60804617 -0.27781484 1.6471632 4294966010
-0.59654629 -0.27475488 1.646718 4294966010
-0.61397713 -0.26477683 1.6477082 4294966010
-0.6046412 -0.26758432 1.6474714 4294966010
-0.5950461 -0.26071641 1.6466504 4294966010
-0.60432243 -0.25973058 1.6455172 4294966010
-0.83664447 -0.20001835 1.6419629 4292505814
-0.81613564 -0.20218223 1.6444962 4292505814
-0.87336498 -0.19725433 1.6462139 4292505814
-0.85275775 -0.1994286 1.6487594 4292505814
-0.5882383 -0.3730925 1.6548563 4294966010
-0.58820981 -0.36512733 1.6545808 4294966010
-0.59773022 -0.35473537 1.6576678 4294966010
-0.60470551 -0.34303087 1.6501486 4294966010
-0.59461743 -0.34531465 1.653824 4294966010
-0.67961723 -0.33321694 1.6530722 4294966010
-0.5937562 -0.33517849 1.6552594 4294966010
-0.68330145 -0.32049015 1.6500745 4294966010
-0.67281622 -0.32148588 1.65133 4294966010
-0.59363168 -0.32428342 1.6569535 4294966010
-0.68324518 -0.31114584 1.6529686 4294966010
-0.67286175 -0.31264043 1.6548394 4294966010
-0.66424644 -0.31337851 1.6575835 4294966010
-0.65323865 -0.31157526 1.6502613 4294966010
-0.60391015 -0.31220964 1.653443 4294966010
-0.59727657 -0.31594276 1.6545939 4294966010
-0.5831064 -0.31470335 1.6536814 4294966010
-0.67126411 -0.30453712 1.6533536 4294966010
-0.66432989 -0.30737796 1.6528006 4294966010
-0.65431213 -0.30172831 1.6552033 4294966010
-0.64184237 -0.30240798 1.6515098 4294966010
-0.63278413 -0.30296862 1.6518669 4294966010
-0.61350226 -0.30266529 1.6505373 4294966010
-0.60527706 -0.30427825 1.6512828 4294966010
-0.59213525 -0.30398273 1.6539673 4294966010
-0.58430916 -0.30770931 1.659816 4294966010
-0.67532259 -0.29222047 1.6579584 4294966010
-0.66651922 -0.29343575 1.6564512 4294966010
-0.65270454 -0.29498577 1.6555862 4294966010
-0.64523762 -0.29299775 1.6537703 4294966010
-0.63507825 -0.29455096 1.6520071 4294966010
-0.62282223 -0.29391831 1.6525929 4294966010
-0.61293048 -0.29307249 1.6505709 4294966010
-0.60618746 -0.29620153 1.6554071 4294966010
-0.58636957 -0.2981357 1.6557597 4294966010
-0.66069442 -0.28621399 1.6596122 4294966010
-0.65258539 -0.28256494 1.6557932 4294966010
-0.64550334 -0.28622571 1.6551844 4294966010
-0.63293761 -0.28685796 1.6536742 4294966010
-0.6235438 -0.28498745 1.6544237 4294966010
-0.61489701 -0.28491285 1.6544213 4294966010
-0.60561574 -0.28743428 1.653662 4294966010
-0.59857488 -0.28336632 1.6566837 4294966010
-0.58904803 -0.28504384 1.6547679 4294966010
-0.66018695 -0.27704686 1.6596537 4294966010
-0.65102887 -0.27849224 1.6589344 4294966010
-0.64344108 -0.2773003 1.6576657 4294966010
-0.63412166 -0.27644363 1.6568807 4294966010
-0.62498635 -0.27447003 1.6577401 4294966010
-0.61458784 -0.27473107 1.655274 4294966010
-0.60524404 -0.27548447 1.6561753 4294966010
-0.59702766 -0.27210513 1.6565838 4294966010
-0.58865452 -0.27306804 1.6574615 4294966010
-0.63342494 -0.26555452 1.656958 4294966010
-0.62424481 -0.26848465 1.655303 4294966010
-0.61540514 -0.26414624 1.6575012 4294966010
-0.58764756 -0.26464841 1.6570922 4294966010
-0.61513221 -0.254363 1.6568637 4294966010
-0.60547483 -0.25138682 1.6516783 4294966010
-0.59806693 -0.25604033 1.6552663 4294966010
-0.63509154 -0.24016958 1.6555738 4294966010
-0.62783337 -0.24342972 1.6550606 4294966010
-0.61794585 -0.24452204 1.6561892 4294966010
-0.60678262 -0.2450335 1.6536329 4294966010
-0.64444798 -0.23917523 1.6544309 4294966010
-0.83215052 -0.20160288 1.651305 4292505814
-0.81154335 -0.20377713 1.6538506 4292505814
-0.79093605 -0.20595141 1.656396 4292505814
-0.77032888 -0.20812568 1.6589416 4292505814
-0.86896944 -0.19882852 1.6555438 4292505814
-0.60066658 -0.36619157 1.6651543 4294966010
-0.59038937 -0.36034906 1.6633521 4294966010
-0.58654314 -0.35352868 1.6651165 4294966010
-0.58577639 -0.34580243 1.6644413 4294966010
-0.5996474 -0.33615375 1.6654294 4294966010
-0.58811045 -0.33173311 1.6628928 4294966010
-0.6826992 -0.32466188 1.6617367 4294966010
-0.59930766 -0.32614112 1.665521 4294966010
-0.58722293 -0.32365412 1.66237 4294966010
-0.67523581 -0.31600341 1.6695595 4294966010
-0.59508711 -0.31431213 1.6628448 4294966010
-0.58935922 -0.31625211 1.6689119 4294966010
-0.67504883 -0.30589536 1.6697577 4294966010
-0.66422892 -0.30313903 1.6621832 4294966010
-0.60205144 -0.30586454 1.661504 4294966010
-0.59494984 -0.30328751 1.6645277 4294966010
-0.58781713 -0.30071327 1.667554 4294966010
-0.67486179 -0.2957873 1.6699558 4294966010
-0.66326487 -0.29384956 1.6608427 4294966010
-0.60089946 -0.29425704 1.6604896 4294966010
-0.59533739 -0.29319352 1.664988 4294966010
-0.5840255 -0.29190338 1.6641978 4294966010
-0.6779229 -0.28337479 1.6656295 4294966010
-0.66630256 -0.28476843 1.6629326 4294966010
-0.65563071 -0.28607279 1.6619456 4294966010
-0.63285482 -0.2809017 1.6621931 4294966010
-0.62509149 -0.2816138 1.6628602 4294966010
-0.60159457 -0.28594115 1.6652207 4294966010
-0.59454286 -0.28419626 1.6644289 4294966010
-0.58480805 -0.28449574 1.6691432 4294966010
-0.66621053 -0.27913094 1.6648893 4294966010
-0.65618902 -0.27382249 1.6675328 4294966010
-0.64683229 -0.2736609 1.6643593 4294966010
-0.63753039 -0.27415097 1.6645665 4294966010
-0.62646466 -0.27490529 1.6675568 4294966010
-0.6160605 -0.27455223 1.66353 4294966010
-0.60581011 -0.27566263 1.6645485 4294966010
-0.59356493 -0.27323169 1.6684273 4294966010
-0.58200443 -0.27500424 1.6634568 4294966010
-0.6619572 -0.26884034 1.6669518 4294966010
-0.64333868 -0.2669161 1.6640215 4294966010
-0.63777947 -0.26368669 1.6665711 4294966010
-0.62699378 -0.26421645 1.6645687 4294966010
-0.61010176 -0.26853472 1.6682148 4294966010
-0.60425502 -0.2664527 1.6646643 4294966010
-0.59503114 -0.26368332 1.6643887 4294966010
-0.58346927 -0.26471689 1.6663144 4294966010
-0.64876842 -0.25909153 1.6607101 4294966010
-0.63551086 -0.25432724 1.6657927 4294966010
-0.62631786 -0.255384 1.663527 4294966010
-0.61621201 -0.255274 1.6652948 4294966010
-0.60331011 -0.25313389 1.6627162 4294966010
-0.59678918 -0.25617251 1.6609541 4294966010
-0.5883863 -0.25713882 1.6618348 4294966010
-0.64552772 -0.24794629 1.6607729 4294966010
-0.62528282 -0.24682316 1.6697062 4294966010
-0.61658347 -0.24536122 1.6661898 4294966010
-0.60631967 -0.24668205 1.6656127 4294966010
-0.59764218 -0.2463901 1.6630168 4294966010
-0.58918488 -0.24960317 1.6667717 4294966010
-0.86649424 -0.21094626 1.6667966 4292505814
-0.85608524 -0.21204451 1.6680824 4292505814
-0.84567636 -0.21314275 1.6693681 4292505814
-0.78734148 -0.21797526 1.666556 4292505814
-0.87690312 -0.20984802 1.6655108 4292505814
-0.80685246 -0.20538248 1.6632169 4292505814
-0.78614682 -0.20756714 1.6657747 4292505814
-0.58390903 -0.34027252 1.671616 4294966010
-0.5916723 -0.33956039 1.6709489 4294966010
-0.58511734 -0.3337988 1.6763476 4294966010
-0.58434319 -0.32599825 1.675666 4294966010
-0.58471549 -0.31524479 1.6788464 4294966010
-0.59058928 -0.30968225 1.6736327 4294966010
-0.58355075 -0.30350772 1.6778207 4294966010
-0.66477388 -0.29598057 1.6702942 4294966010
-0.58904105 -0.29408121 1.6722693 4294966010
-0.66458684 -0.28587252 1.6704923 4294966010
-0.58981621 -0.28714114 1.6757811 4294966010
-0.67086005 -0.27492398 1.6743313 4294966010
-0.66756296 -0.27697676 1.6791668 4294966010
-0.65431201 -0.27595773 1.6710289 4294966010
-0.60220325 -0.27711818 1.6736392 4294966010
-0.59387261 -0.2736918 1.6745926 4294966010
-0.58903968 -0.2793164 1.6750973 4294966010
-0.66047204 -0.26520261 1.6744558 4294966010
-0.65489984 -0.26683062 1.6725849 4294966010
-0.64847267 -0.2640793 1.6742218 4294966010
-0.63587058 -0.26377419 1.672724 4294966010
-0.62351942 -0.26544958 1.6710684 4294966010
-0.61531162 -0.26442558 1.6720202 4294966010
-0.60253143 -0.26463276 1.6730851 4294966010
-0.5953052 -0.26294979 1.6730578 4294966010
-0.65704936 -0.25685501 1.6799051 4294966010
-0.64506018 -0.25845033 1.6727494 4294966010
-0.63523132 -0.25622219 1.6744566 4294966010
-0.62369156 -0.25638753 1.6752436 4294966010
-0.61291254 -0.2555894 1.6745906 4294966010
-0.60452271 -0.25559247 1.6728077 4294966010
-0.59653932 -0.25610414 1.6777523 4294966010
-0.61681116 -0.2477974 1.6705942 4294966010
-0.60331172 -0.24659994 1.6733147 4294966010
-0.59950954 -0.2471246 1.6748346 4294966010
-0.87356567 -0.22200194 1.6756529 4292505814
-0.86310744 -0.22310539 1.6769447 4292505814
-0.83526742 -0.214241 1.6706539 4292505814
-0.82485843 -0.21533926 1.6719397 4292505814
-0.81444955 -0.2164375 1.6732255 4292505814
-0.80404061 -0.21753575 1.6745113 4292505814
-0.77161264 -0.21036594 1.6775831 4292505814
-0.76120371 -0.2114642 1.6788689 4292505814
-0.89327514 -0.20928106 1.6722798 4292505814
-0.58473814 -0.29682326 1.682534 4294966010
-0.58436632 -0.28547877 1.6837008 4294966010
-0.58399206 -0.27410892 1.6848655 4294966010
-0.67193556 -0.26692569 1.6848239 4294966010
-0.65315503 -0.26655549 1.6818697 4294966010
-0.67299116 -0.25576472 1.681897 4294966010
-0.6629017 -0.25610736 1.6819296 4294966010
-0.65281218 -0.25645 1.6819623 4294966010
-0.64272267 -0.25679263 1.6819948 4294966010
-0.63263321 -0.25713527 1.6820273 4294966010
-0.60236466 -0.25816315 1.682125 4294966010
-0.59030271 -0.25762427 1.6828113 4294966010
-0.87135357 -0.24482878 1.6866076 4292505814
-0.83414662 -0.24744374 1.682399 4292505814
-0.82368857 -0.24854718 1.6836909 4292505814
-0.81323034 -0.24965063 1.6849828 4292505814
-0.6701594 -0.24756527 1.6882435 4294966010
-0.66255885 -0.24600187 1.6820222 4294966010
-0.65466535 -0.24652076 1.6810795 4294966010
-0.64455175 -0.24678919 1.6812658 4294966010
-0.63443816 -0.24705763 1.681452 4294966010
-0.62644833 -0.24727972 1.6811241 4294966010
-0.61472797 -0.24752498 1.680778 4294966010
-0.60527039 -0.24829839 1.680769 4294966010
-0.59739548 -0.24902076 1.6814457 4294966010
-0.88064843 -0.23315667 1.6845167 4292505814
-0.87014103 -0.2342653 1.6858146 4292505814
-0.88994336 -0.22148451 1.6824256 4292505814
-0.85842115 -0.22481042 1.6863195 4292505814
-0.84791374 -0.22591905 1.6876174 4292505814
-0.83740634 -0.2270277 1.6889154 4292505814
-0.81081665 -0.2286226 1.6834041 4292505814
-0.80035847 -0.22972603 1.684696 4292505814
-0.78869349 -0.22031549 1.6851985 4292505814
-0.77823532 -0.22141892 1.6864904 4292505814
-0.75199592 -0.22302698 1.6809403 4292505814
